ply
format ascii 1.0
element vertex 800
property double x
property double y
property double z
end_header
106.027165470956334 81.237987748235838 138.763643437974252
103.882627137541419 78.470686693959948 136.429615167436054
96.982083083041346 79.543675023666907 135.952511322945725
752.147024634015906 106.996347294343707 229.200698150490382
749.604148271121403 107.652232963570981 229.222276080929930
423.628800755762200 159.281560071628263 215.133390704124736
424.632163613050295 157.143627668636753 214.539251779718285
420.992131846901202 158.449097095663745 215.025168842047435
419.052281337192483 157.516123503558333 214.233369441983257
419.472948704212740 155.479956645557934 212.988550770208406
417.961283533502410 152.173377747530878 211.377012377147025
421.350984287496658 150.011653659860684 211.031239208968799
415.456421700231374 150.413411196905315 210.449154012048950
412.899735246714442 151.454814098791900 210.687712625409603
420.043595457150218 147.364724126859329 209.762661229620278
414.863672004713976 147.994257434502657 208.547897167066992
413.041393567331852 148.931217622496263 209.141118554170561
419.792746578996571 145.179489821631734 207.727014282051698
414.332911184227612 146.399429462485841 207.884710976199756
402.031578748138031 149.614140511253538 208.323212484371339
410.443750127880207 145.706681255865504 207.630811689323764
396.643337672826476 146.894221444842771 206.780019123391639
365.111697335519466 155.485446014609920 206.854832446020737
407.845557000450924 143.221390779223356 205.584899335264680
412.369340043898546 141.143225894763674 205.693687387345875
394.116938523567342 143.116393586599884 204.613412303666166
412.212225821446737 137.172433044771026 203.865714584104438
409.181918901694189 138.526865579856150 203.346930089202345
361.436961879085402 150.724281239234358 204.246025382949313
358.649526990098423 151.514240678927564 204.509832727305081
405.197553912386525 139.120923963326931 203.340462948305628
358.553930255174578 150.646624478099653 203.625792348143563
355.839164181054230 151.346845766598960 203.648828872593555
402.929928217889767 138.484172562915177 203.259652082689911
391.620273655062363 141.343531052951874 203.408298660284544
367.890697995036930 147.057140862956743 202.652899234925485
412.536067159792196 133.891578456889846 202.030715118025910
399.066090027211374 137.682380637668984 201.655499310914422
370.130886539082439 144.702385573814894 201.721981913410985
365.991801488176407 145.594731752520602 201.994962279099639
363.383904252895547 146.974962848860002 201.885483264932304
380.335504436177530 139.400657691493535 201.235200563903959
391.759881498283619 135.428914404544940 199.885294431576426
364.427705779179462 142.049502844411336 200.276202353381620
360.834773463264014 141.878247162287465 199.249869226184956
377.847482255442856 135.074635936427626 198.414348697284396
390.397355947425297 129.931657478651715 196.742366096919397
382.998608142059766 131.621937122959338 197.674545823423813
383.393158361915141 129.453865624972565 196.121650311476174
383.027922855736279 127.110614310769591 194.900604558099531
105.451621258279090 92.271734749756490 144.783042577936726
106.814299961019174 86.608536370278642 142.521880616366815
108.366553688513022 85.288629262025466 141.473855807678007
110.091942766597526 84.404372115225769 141.220824175328346
98.756751914816448 81.054600243466439 139.119717262165807
107.118575852955018 77.653038188291049 137.514960550608890
108.897661176575525 74.576638833752966 136.808421198779570
756.904603072664941 108.451428990245432 231.793581881512750
754.183510611764063 108.270463286263777 230.757271926690692
750.983202444260996 108.797068011242942 231.181568659804668
746.130664384197303 110.123679697072561 231.039493771996149
754.447414964049813 107.217709051028663 229.838430141792173
757.861907980770411 105.278655368717978 230.159299067129894
416.495493332924013 155.758453288560247 214.600958546168954
411.866456501573396 157.606070241010428 214.118361708279622
415.445331414268708 155.649946530138948 214.522348211107328
402.167399352844029 157.105279627688930 213.701451983797654
414.874054471644058 153.357697511476886 213.292999390933119
404.882855201192342 154.690156331994984 211.917024337929291
412.272086570054455 151.052762552294524 211.136960003716467
398.933088606697424 154.560145427740366 211.277890773043595
417.489015784818207 148.858721575602289 210.435746330495505
399.227113984218931 153.443857385526741 211.097092930920212
422.835263342147641 145.901791638132835 209.873807723539187
391.564876971879016 149.859651231041397 208.675582061120735
416.341813219065045 140.483455040050643 207.193319857329897
361.759839970134749 155.117021760669189 207.460873693135170
413.582172615894649 139.439949098628659 205.768344853993938
394.284605271413056 144.615090114010059 206.064083697848673
362.688940656559112 152.961511111422993 206.051535623069356
368.692664579241864 150.223660240757795 206.057044163620787
356.119770265022680 153.003022780054124 205.180142728250075
406.685413788635287 138.710134637652601 204.603140099675954
402.228435165429573 139.551529991250419 204.230629546003655
414.738377305740983 135.696208549832164 203.588518730353258
397.546076001270933 140.582120185160733 204.267734643710327
368.901142926304146 147.629664950520834 204.068158632622044
361.564072163892320 149.574118139717029 204.068713976192640
417.990570493682810 134.210373466241975 203.786509236653643
390.245466329512112 141.449860832500718 203.918800156593136
363.956965617390551 148.150951944318308 203.872627876792080
403.924317558473945 136.777257540885671 203.347948496566488
369.407935571846110 145.187820153449593 203.809291958700072
392.927095246012811 138.789670411777962 203.007206681495035
373.193874370020353 139.792222936405949 201.704999970560834
369.868433106398015 140.820972743222626 200.739649622535580
365.133090130138214 141.906346015840938 201.810536549630797
362.066581478504759 142.785860676662111 201.755870438607218
375.814417247140170 138.296524955812828 200.676198040030556
363.692348541626529 141.014020541280019 200.757053396433690
386.390069037843205 134.318013847276944 200.323049541253539
381.358485018693216 136.187685769568617 200.472916131814372
378.553188866411006 136.752210920270016 200.280799032878065
390.600057255390595 132.782732669661755 199.676987993532549
381.065478456973324 134.861909194231174 199.294789076936468
382.077999066786049 124.659690517108373 194.989830544258183
107.743015283495652 97.779562843248698 149.184437471418875
106.872048068308970 96.607792981145082 148.412942998774753
103.649395816323306 96.690782433497333 147.706407004765026
100.470328782368767 93.244040195335060 145.821619372781953
108.527594486701673 90.055361822617044 145.510276575836031
99.905305591696731 90.382339207109368 143.982432619780866
109.180772730647334 85.379243855254543 143.549743695971983
100.409515627286510 86.292265241988673 141.984937331110075
115.754792316113310 79.430869043342170 140.725822568052394
99.343749863781682 83.943965369430288 140.959512278441281
97.681868479658419 78.695631925693704 138.093046311686265
104.279459574429097 75.651044198320079 137.499422544237859
111.358571417472263 72.014879445447974 136.644415253986551
753.977538132955715 106.902268363038303 231.560668023687839
424.674383585381861 156.622145238146572 216.312055151312421
422.032344678743527 155.787986818239233 216.203612878110761
407.979047458577270 158.823037235388767 216.296030478194353
405.267884945548303 159.118977280509711 215.998183653149880
420.508675234384498 152.813375454459106 214.174286044836435
402.275988805872544 157.792612278119492 214.473047723833872
410.129830124733530 154.978416156048382 213.688948839012482
418.968895796692209 149.833677758850115 212.144297978189286
408.849505358823762 152.393818057852002 212.674319528888873
401.890095595643402 154.573747022662502 212.454766329042030
424.921233230396581 147.230745774913402 212.044718832911599
417.170696413663791 146.147152671931224 210.490232636270804
397.722869475686025 151.147918866273045 211.223744743816383
400.984248730477930 148.494360859540279 209.869081613936203
413.897083898082826 143.763440692844483 208.958446933330038
407.905078917140258 143.979752963903167 208.420795431257375
414.954616312664996 141.709717879604995 207.681732941913538
408.040836251928852 141.545742864353087 206.981789627747730
399.838055914427741 143.552746053954166 207.258486920202500
362.420813917288740 153.568839758449371 207.797269395153648
405.008547684971347 141.433943918702056 206.475026248012938
396.022466415975259 143.485816823910596 206.885880421194997
397.993390029200611 142.432854851378949 206.323110705210553
410.252123476015072 138.645968852017234 206.075464548437026
403.930672337211035 139.913623252355364 205.603557228767670
365.458715568119942 150.025669489642297 206.697267847108520
360.714789382182289 150.759605001941082 206.383658837495062
367.775374633634442 147.274313387708077 205.758164348937584
360.931060521701795 148.670503951356864 205.337533752825266
399.425411117201406 138.493009214968396 205.058174180468995
366.087521458683227 146.631194502437722 204.586768548442507
397.391693156728650 137.993628707086259 203.777870836902082
366.507303616004378 145.558015171717472 204.639210667105857
360.367203450597231 146.459155586804911 204.425167568754290
384.618875717359344 139.666861794268755 203.551337853842625
371.473833110151588 142.836779155661191 203.841072065378569
367.935347349172503 143.040287995004121 203.596780979302451
370.981350025213715 142.019170864186748 202.919420082959789
368.029156140546206 141.969763053491278 202.421008164679137
365.902545804742545 142.377333406235294 202.885624930150868
363.694963763054204 142.858743722081272 203.130979793532759
374.199809929291234 136.404360652027663 200.253844361273252
380.188506672506264 133.518337073971452 200.262785999274172
385.225731860152905 131.661535685409859 200.113932572322483
389.440233012497345 130.136550934778626 199.468681555488786
381.614976318302240 129.987403674182787 198.343409373924544
384.077606952321162 126.878281474098429 197.715908572754415
374.848662491250195 129.260459464798004 197.251057772106208
385.238820791705677 125.291422939824685 196.146534284947421
370.153709839392036 129.364144748518044 196.435335123838229
109.606630141449614 97.051080598533105 149.937366841521396
101.618800286418548 95.416078311579554 148.308725161060693
105.848816081668303 89.475182026537681 145.810504350956450
107.627490948807747 86.699036551142271 144.595147434094827
116.003436624813844 82.928150965389250 144.325587365357279
103.675591897718903 79.061694437560291 140.893223489726466
751.404944571143915 106.307457712272225 232.201790725387866
754.412096877585896 105.186343286578790 231.521705874212955
749.563075295338535 105.621036354700664 230.908111621843204
419.143734413023935 156.901398955032789 217.362130681306326
419.037522271483851 155.433676603654419 216.264113655870176
421.174036643317493 153.898549660578766 216.385316955907598
413.942352397316824 154.005050451647804 214.969046009479314
420.036604556973543 149.289344246405875 214.089171781499033
413.565266536327101 151.095853174123846 213.483588139752555
421.637300353781711 147.042162451812118 213.206590581733053
398.685395201650635 153.435953150850963 213.600409629397177
417.197249033619528 147.650024351879296 212.901409760364800
418.220790988980525 146.108103683555186 212.326618694463207
413.652597996748909 148.155188255377936 211.926090965039435
420.042435768349321 145.553707299886923 211.696514993634423
414.711959367714087 147.007187851599866 211.444633010674465
406.926369029981061 148.981561612339647 212.332791456345717
397.354157077587558 149.053690666475291 210.580654185662809
415.968868703564681 143.140554295293384 210.051735329555868
421.045391724735850 140.173951666921795 209.494685943685710
396.966684088571128 146.144050470052719 209.079409889741356
357.605171058687233 155.572789399372652 209.341459104061130
393.124658323062704 144.686925171711835 208.694535159383207
415.389444586127638 136.283607145995546 206.393619781658373
401.639049939080451 139.834350024651712 207.257767244037382
355.857377736934495 151.724211298386365 207.554849356801213
353.149748135811876 152.429372155182733 207.580639078991851
392.677113522883474 141.461146964365582 206.102759202160911
358.496703198281921 149.944914719515793 206.596099674913518
393.983935113833866 138.907286323191443 205.701667223371516
358.000610261548559 148.731261230866664 205.732310333757397
359.959318227710696 147.058771490382952 205.688889813134409
362.274227205766351 145.598061852674903 204.933254858906167
399.399936139717965 135.374729490119847 204.272083030479877
377.566919400007862 140.533391582658282 203.951741896390217
369.305767138944589 140.275413917849534 203.161896914424290
370.419629133125170 138.077533458413541 202.749901251204733
377.867195522611553 133.938839232225973 201.639633355461683
375.585857038932431 134.611212671725951 201.199647253367147
380.304043922436620 131.645637246314692 200.336773996886762
378.189969622906688 132.465059211120860 200.179060580464551
373.966351435789704 132.694912360211219 200.227016708467090
380.202137206313694 129.904302118727713 199.833039178191115
377.739585612158862 127.034196502506973 197.834633182322165
113.880610351931693 98.384581811556927 152.204660805885851
111.207598211161837 96.384859018975391 151.065515785563946
103.846811494526150 96.377658348342464 150.631747226849654
102.734446378532141 90.663234046960554 146.970156865290505
101.678617707520175 88.324609594910214 145.948484191683065
109.994991772781816 85.469858448483365 145.625631584265733
106.410854005015892 84.324970957565327 144.715977618323194
101.106023340546869 85.448194242835342 144.115446394845151
110.690350923721155 80.793270277909869 143.741626172497092
100.041076997882101 83.098901345571761 143.092527823427247
98.972483586555029 80.745341070223162 142.069110892885590
110.018048763859781 77.118867975162004 141.442192542694045
98.381653876276289 77.847588827721268 140.233581300427090
104.769341592184162 75.470859385646435 139.649378843382237
108.268397709514886 73.742981157871100 139.353277411210541
756.304512475862566 107.749466020201112 233.753822615610346
757.532162698180628 105.381662037608947 232.889261755373298
746.457042813259704 108.729272876229913 233.813796390603670
756.242966784609962 104.560133354915877 232.150643510072769
753.708693422828219 105.226500275072198 232.177418916706756
428.420951194128975 156.209526412335805 218.737918892916753
423.258113455096122 157.284067489229670 218.899293049838519
424.964235908664875 155.383791166207203 218.775876249426062
418.305390893582228 154.675917407179668 217.401705007775377
415.250863004983159 155.346458483723808 217.627844472824762
422.828338046685076 151.487511587122242 216.011476923162490
421.172495639904128 150.856503108253150 216.007827822511786
417.914144575569537 152.304529135827181 215.723248541683660
423.608157352794024 148.326981328793352 214.638729692061162
412.105035282025710 150.636186836973621 214.242375251372835
398.779662444269036 154.139987094568795 214.383162066900809
411.888607262891071 149.473454485871144 213.360370114513103
423.284088126100869 143.966823798746077 212.018773853210462
400.698281073644239 149.796408727628233 212.696005969049224
414.319362695380050 144.601062337671124 211.325067271098050
410.717437402990981 145.042211128767434 211.113492550632884
391.563917526070156 149.736025022092150 211.952095439583189
418.885777285863242 141.412770012626254 210.384622345861459
412.058288283116212 142.398662432305940 210.313821927757942
416.337222413576001 140.342654073944431 210.425981439300955
409.998980505413840 141.351228668402001 209.210163161290353
412.457368012408210 139.783568777942691 208.850640470151433
410.112128148091131 140.144082770252083 209.587460506765126
416.402997854383614 137.710212288936475 208.749909128926447
404.580491166436843 140.499895484959382 208.403279371057920
398.812810868331383 141.439830146492426 208.829591956663450
393.973169129292955 143.033562297168032 208.153889260743938
397.847940874175890 140.320693687890952 207.514673883017082
391.184909953922613 142.281968202989788 208.316948487093043
399.468533204972914 139.309078715789042 207.577131665194088
363.059676357235332 148.225104127336323 207.088981691982127
412.190337343258307 132.936515385722146 205.764401834573334
406.974356741486133 133.243157707051182 205.458248418807784
362.981840185147860 144.134134353859849 205.699960474349439
361.711775282826579 144.559454941629866 205.224143072189179
363.941234798163464 142.913674286802973 205.423517278057801
371.926453495790497 139.474901030255864 204.647826098331478
370.295723853968184 139.234601538408498 204.273854924834950
367.405214187791671 140.099381734204997 204.473970884767084
361.946264689417376 140.466378268572754 203.597099030882077
372.700141549166574 136.767339283478691 202.715943133752432
375.283533737481321 135.444418533781828 202.305487205419666
357.773858211127504 139.993653067893263 203.092868814607471
366.904209145624918 132.173212254231458 199.703026466472181
365.598441576800838 128.907588374117694 198.757358864758089
381.701913378300787 124.163173380483016 198.402638724066747
379.003094163422645 124.116552757431748 197.567073250218755
114.667837244538589 99.057695077641540 154.093739601374807
110.994519543189938 97.958635955652767 152.403040525024181
108.086867332766587 95.773025086924974 150.910158046709370
111.061331743411131 93.603997605139710 150.604952869003284
102.801924029498082 94.051836030548372 149.611569630614696
108.795586884891293 89.495604613326975 148.319544467114696
112.093701190590252 83.861486868948901 146.516693418826776
104.416647709588460 76.751272779302184 142.120617129908112
754.880512745146689 104.630468462800224 233.428229057870425
756.385919009783947 103.063370009732836 233.327902124922758
754.376182644943128 103.152500873333906 233.210008614475100
749.284973102924596 104.465679691765672 233.253210779926064
422.322197002026712 154.549632746299608 218.667433976224117
413.329440831867601 156.724440442093453 218.347791621222171
407.695617994149416 157.682171920391568 218.681531332407246
405.046333714781838 158.365503449168301 218.704012201996136
402.256644066672607 158.167359340695185 218.207920530831927
410.075674550048348 155.287804990081639 217.481727665072981
414.749108569780162 153.105849031609267 216.983824350538271
403.797043827420566 156.075122352301776 216.949997420136583
401.558377181753031 156.088374319804842 216.818583842579301
409.167799115708931 153.004440469662711 216.362846496728309
425.212386322298130 146.984858642385689 215.320412992150409
419.368496093983708 148.632285968784061 215.296735870668726
415.264871245849008 149.893916656569786 215.320222946883462
416.635380614776864 144.228138729636242 213.337590948494352
413.836631569331871 144.127427704462178 212.719153696747156
400.210920016003683 147.589750582148895 212.395217592467588
394.881080822884428 145.359071562614275 210.890461278948180
353.439031411311760 156.024769880442534 211.232444493507103
404.955932154215930 141.386175515735516 210.299761397442779
399.838307664724425 143.423433699362363 210.515942476288416
360.465539938586289 150.553331534969885 209.140206100926093
355.180662386340543 150.271873645308347 208.556870657071670
364.199261175416154 147.005841507417671 208.052839791668845
357.171620671567212 148.199325043518456 208.424184389533309
371.315763514038849 142.709291952476946 207.124377178685222
366.388264338940587 144.190850906424515 206.547086304150241
360.507772724960319 145.446678437613087 207.334636178292925
354.810441265091981 147.437463249184901 207.630245070377356
397.639301779043194 135.915773588506624 206.457523814068395
357.445994495008733 145.843406051608184 206.713006953100859
374.214407872541528 141.089253767575201 206.061792791405793
359.168415781742397 143.737060163188659 205.812360927951346
356.996925325044003 144.383866474580572 205.691474252058981
365.383483298243164 140.755820228911261 204.811191309018454
364.320745770878261 141.298468479601553 205.571705025342368
359.547886808731846 142.886885455865468 205.025965891218675
371.359661855982040 133.558689504108202 201.965435837506590
353.388251208913289 136.906118208880059 202.223258033248783
379.169313765232062 125.653649083919817 199.384055048410744
381.999975671182256 124.031536732709384 199.481779958438381
106.074822702634435 97.339238385105233 152.954769292638616
105.032578192775816 95.014556731649463 151.937347357217277
103.986686614255859 92.685607700107852 150.919427062671616
118.891360626663243 85.722782329503744 149.326866531521659
103.428495829275619 89.822142121921701 149.093146485270779
111.491732939530095 85.928596351716948 148.375004318485566
107.893184065422702 86.141649229721622 147.402184422102096
101.314830260268252 85.138639790326380 147.054315741435147
110.451763412163814 82.859373760860734 146.051169591856876
99.563669463441670 76.458628115975444 141.565008467626257
111.731177848993582 71.902118665969525 140.941839770542458
750.664085656307293 105.626890835229062 235.197645938315588
751.591416395366878 104.688110617268848 233.885869458814682
756.204989854661562 102.530618671729087 233.836862864146667
753.667991467759293 103.197702115455229 233.863667061540554
753.727247632995159 102.312584972640934 233.877325652464691
404.405540044736085 163.214894801235516 222.065159172457072
407.943696277037816 159.142802810741387 220.078581951815949
405.303146935568293 159.837114150130077 220.106480198083176
418.843444909727509 155.134956954641694 219.362092641721603
428.793564752492443 146.925850468819732 217.439082775908929
398.615630716816895 153.083753244558380 216.075617219915983
419.651206948934771 145.918047062365304 215.238559011489968
416.786216869492137 145.647772572613974 214.727263790927310
414.112967226580167 146.350682194843188 214.755507526312300
397.000183506434382 149.905013190559941 214.185658561283759
411.190065667426552 145.852792426841290 213.869968530780170
395.883217627169415 146.316433444480793 212.443239087882546
422.209313416784823 138.694032060478747 211.900972636456288
408.257138661789668 141.985919519899824 212.546673981253889
413.100527501492707 139.426513199385369 211.037290349254476
405.954027967549507 139.941933806760517 210.576000881958265
395.981845568656354 142.374424050847693 210.582194676351889
356.753983909662054 151.741882944802001 210.556184274280270
392.336357889630335 140.475128166730656 209.805553205513689
350.176017241756028 151.838102269379362 209.973074608376692
411.229199495820922 135.099437399061003 209.394343565078799
374.942741324867825 144.385582486688520 208.855524774941102
359.510263266572451 148.194364360597319 209.461277428962262
352.708279579333578 150.361044982393139 209.311911293941932
394.340706003889636 138.475569180315318 208.900684663280515
349.746668649398771 150.421393956634546 208.960858721420294
413.259513863232769 133.055504245517909 208.490315223241964
390.048336936393582 138.689776507808688 208.272547245328411
354.960855395842032 147.607975165567069 208.304704020267366
352.275829932125305 148.930145126479658 208.295580686658695
408.039421044076448 133.361688917386033 208.173677525212440
395.064914404796014 136.795160768859148 208.131262558905547
359.162578956793766 146.126776441728310 208.291498121995005
370.269778773789369 141.071595529945967 207.573390353484740
360.639185129951329 141.083323898846203 205.952405717468480
370.201500183957705 136.194999680867198 204.545638633527176
360.033541615373963 137.980083628317004 203.811683730396055
371.794549542904690 134.182708920372050 203.320400593121519
369.456003636174728 134.477780298353053 204.240963284279502
371.924201246956500 133.354446523081293 203.594293782750526
373.796775149208941 132.111036782367762 203.584582477368656
376.891795960046920 130.501410156842638 202.307318503589840
374.352279129071576 131.060927378852114 202.296552762638498
368.898904791345217 129.620689615213564 200.840404942699450
372.469483711887392 126.979115584671064 200.771153602165043
110.991942484365893 95.372526346344330 153.458894618896664
108.488548457826255 92.981943277381220 151.930328581164133
109.308141396112660 89.102737794065689 150.969919577907774
113.541355422065180 87.033195106461079 150.400700997395660
114.663195001395763 86.010522860986782 149.561585887588421
110.616617892038107 87.618653420748672 150.086419858131052
108.705346998865195 86.232034998220541 149.472830169263972
101.883962251231935 88.014907502768608 148.882091396208210
116.591154501512733 82.716198788939010 148.604580478447929
111.264954399952160 82.949873941724633 148.124436409584547
106.646740512876818 83.866974701175508 147.895474495753490
99.766649613563800 83.327137793088241 146.842762293248143
99.186576416615821 80.438067946390305 145.013491561102938
110.227749033455041 72.914677866963046 143.199430124215183
755.783487357337776 102.358668562561888 235.295790092053267
427.514693190421667 155.693053642705934 221.983096090952358
418.502303200521737 156.670932711097805 221.098133020991241
425.254088231947833 154.145437094267407 221.239697347539305
421.861852106926733 154.345058087027439 220.476715113258678
419.954035211944017 155.183675421173405 220.533710669836182
423.751409970182976 152.378065339589313 220.350786618405976
422.988113275696662 152.596125101886287 220.496078193001921
417.408190782216820 154.152837724190988 220.236450216506910
423.965243905557543 148.627162489930924 218.362862059465044
421.836905176162134 148.897113782226086 217.846377366646379
412.085395549255622 151.084188381379761 217.926914134265417
415.934799583286519 148.715172293813112 217.898587928615882
422.411926600492279 147.113780062722810 216.858882283405478
419.738881645663696 147.731907501438883 217.180179794490925
398.488491135420077 152.933756599873362 216.843793530586680
424.190777889621700 144.864080118616670 216.374157757521999
412.435229323245323 148.178670890534562 216.146853673593824
416.937856734187108 146.085915497647193 215.916431937825735
406.304812002463109 148.770446209421777 216.076298554154107
420.118156675873706 144.703965917329583 216.184365824931746
400.795758830424802 149.200444461588347 215.811223398235882
415.478715085428576 143.797353362902612 215.271639588911626
418.743347426436969 141.773739803075500 213.762820177658199
416.816982954487059 139.841226763664082 213.619942309329247
406.233551017304933 142.517871134122032 213.557664477455603
410.362461430127496 140.925509837281851 212.433550570882886
409.946065070577902 139.289382897435274 212.060140616657520
389.026385352778675 143.983345600715182 211.610770788092651
352.034779580967211 152.922715162485844 211.998743539251677
411.394800875343435 136.513578716084226 210.948313838983978
402.553537808890724 139.230865350908232 210.751201932468632
398.148557295920227 140.058140827061976 210.756234213308517
400.147009836614870 138.869253464929614 210.657624398978442
408.639740174199915 134.599118991939719 209.699844780605645
369.524207209628116 143.254139950533954 209.394481180402067
370.953502652405973 139.683182802291213 207.419226540165170
362.407357867333531 141.523685700791361 207.664445340082239
359.870961120503694 142.970396095102330 207.615982532608029
364.826262588689133 140.151559269026166 207.244839865915850
357.531004520812530 141.616477259662020 207.488665469024568
353.794367622233722 143.086767764608709 207.602104067176725
355.037652226651119 141.724402682157859 207.093588908998498
368.136498793529540 137.655280026983519 206.193463703373340
367.398888288029809 137.493733163956222 205.855608354195311
364.198634281171280 137.868435809160559 205.584048266511218
361.462709060494603 138.587825473500999 205.612954189372289
358.706094877338558 139.502717516262493 205.588092499239679
355.990858619142728 140.026604802182078 205.670766035094147
366.768373219525870 136.365205760940881 204.920854353444099
355.274857007534308 139.138483478197969 205.131114894396831
352.346715561342933 139.055477100455221 205.214770106418825
367.569115612939413 131.730748242496276 203.502509370865624
377.998342427059015 126.092853947900210 201.939917171214063
378.633825888989804 123.638579822381189 200.985584183364750
375.867925391991321 124.365851245992474 201.014806804583941
373.102024894992610 125.093122669603588 201.044029425802790
115.319191780868152 100.814938828993945 158.667904017864345
114.972560627135806 97.911271481583071 157.107383744831452
107.803372490379502 98.823525858961375 156.082150082658927
105.724169381001730 94.176443880725031 154.052817533443260
110.972023362858295 90.346290559015387 152.769863068815511
111.981418968384446 88.357498753357476 151.436400787843638
112.430375195638305 83.806085685357260 149.782741241112888
108.174253208499977 82.026106797804403 148.406052797334098
110.829516126314445 80.861972139479391 147.322127604816131
110.887943689534097 76.577475237968059 145.487391450540713
107.200685271164900 76.900288603726750 145.556040208636773
104.656986608553041 76.286573305420788 145.315247512279569
746.156870430862114 108.011479347745990 237.138240893055354
754.098080452529302 101.997144210398943 235.555107772558074
421.879146772106878 157.430465458051827 223.244295432450286
413.190813662237076 156.564634852332290 221.541552498621115
405.014655117291227 158.641983936060655 222.544467813943697
415.625110326428057 155.632225934071272 221.345839027537124
407.525038945351298 157.156984135410312 221.876875331409110
410.040872823651171 155.670551287619929 221.209225267354952
407.406189024338232 156.479758930348936 221.122143639479532
404.756904744970711 157.163090459125669 221.144624509068422
409.933292618775738 155.005347447736995 220.458513125695902
401.967259084871557 156.968529033084195 220.653456095967698
415.492842803788108 152.350756457339287 220.090340460438767
403.664557454704266 155.807096770165174 220.038880407079205
401.200578225320953 155.588479418401960 219.908015238094663
408.580887696324453 151.562257093187498 218.896987995547022
396.848755200401513 151.161625400655566 217.792338410714905
401.155438542409456 148.440727273388774 216.758068706982101
416.374589263015366 143.643054064320808 216.558149787673329
392.204148177196487 149.236853524564481 216.013193575790922
415.300670137272505 142.500265664741676 215.721527250297243
413.537265065461554 141.555843547279324 214.548943389367196
391.714463809985546 146.822332544812411 214.264465325471008
413.787670915143167 139.459909696540706 213.427110912452179
411.593558578095667 139.309185518164156 213.825841924378807
350.376344918678967 155.013598792291873 214.009238758408060
403.744662384264359 140.107041274573163 213.095914290312862
401.657874637148325 140.020711386729772 212.822114425984950
398.207480957136681 141.243798206506398 212.580105453470935
394.090967453642236 141.144447020303346 211.993225946085744
396.097614849475917 139.142518146018148 211.090588307124222
355.360501479150287 148.648709110592137 211.328433936755118
354.383923115424182 149.339878596653847 211.159478965931953
357.508962707931801 146.988459888404549 210.967058172079419
352.234649935063089 148.350668728344800 211.174674600556301
349.392529241680108 148.733130781578268 211.013943283891933
346.678083694762506 149.440070163718190 211.039799344508253
357.569260046620457 145.836437148402865 209.793544345827115
355.178946209390290 146.132468671427716 209.830665775522675
367.524143885161152 140.892842994052188 208.678173589965922
357.885513048130122 143.481244785300788 209.414320617849341
356.577786923331018 143.486399647091389 209.099526175047913
354.250949668031126 144.529705268445667 208.608907104420069
351.431690343003197 145.363090343156671 208.899154109053001
365.724841023762906 140.483768153472226 208.494571687161113
357.386460074100967 140.264780279932921 207.769803284469276
359.230466097550618 134.191688013663509 205.061361973526374
368.721810794297824 131.217938632771222 204.648041192552341
374.074650976290286 129.010737548941336 203.967965422359839
368.225259814499736 129.690826604678534 203.629677859738592
370.658192304505974 127.393407684281129 202.336911224290191
365.033229420880218 128.758497593070331 202.513354311930868
375.177617236717367 125.366712978683950 201.928063716685500
358.470379522741723 128.799258735622715 202.297939751583812
110.028740743317542 99.783965231386446 158.402416487634554
105.770318697957464 97.551800811158415 156.676948795200360
111.509894082615801 94.051733546699069 155.221491991191016
110.780499680382832 92.388327931035860 154.133715075847704
104.679097223321037 91.846501824478821 153.037403720149143
103.630377996978893 89.512292390147223 152.021491547731017
108.290924253753474 73.309657820671418 144.317423674815103
750.847703773341436 104.006530068515161 236.882062122289625
755.927811441022868 101.382356309191920 236.179243122522564
753.390813054120827 102.049439752918289 236.206047319916564
425.997807611027326 157.812288607176924 224.789226424298988
420.152809500593321 155.113810870822022 223.400392380943856
418.650928251734285 154.838062957046589 222.454973472217858
418.958672375350432 152.773421025671354 222.135441188036111
421.422666761571463 151.155632828428679 221.550021693836356
419.504992162823839 148.325072045075217 220.013412197858486
398.418069625871283 154.150648037950646 219.823538738546574
422.008623807022332 146.884621839022316 219.063558017747056
395.673608594084953 153.217341888192465 219.969645447514495
413.634151460779776 147.348278450975386 218.588243324897917
396.253962060052686 148.683596519626718 217.122912870828515
418.738438237020034 141.629029949913956 216.984545618630449
395.581112331359691 146.624023897590092 216.357158414425470
416.663094729882289 140.750081823990968 215.519599455815666
411.737922377879613 141.748126972645110 215.192707807176248
395.781902129322873 145.609431539281616 215.967497256800129
393.841228903395233 143.813324860291033 215.085767228891200
405.743979955027271 139.937645402184046 213.652237399250538
396.284259770078847 142.109892644389333 213.820799784299282
414.786084743899039 136.417122124275522 213.854903772522732
416.820997674460045 134.368449194993872 212.955337237229060
412.297347961449873 135.218311846491247 212.117635883181435
413.618153051914589 132.637123902736505 211.712252064152068
364.089198797284155 142.103699062016119 209.953032986801190
350.310209733422994 142.996335012127730 209.492465168055475
366.341754968281577 138.195179124249080 208.465814497485610
352.945194610103840 140.368027290610257 208.478307161507189
364.073559274358900 136.750971236897158 207.087599879804941
360.448577310923724 138.084515813707498 207.610766387074136
360.977485340293754 136.132325819805374 207.062563018666026
368.292701851278252 134.153658471261792 206.395498478842967
358.596686294712867 136.230112665846889 206.685487265438979
355.795925895845585 136.709563342472592 206.524738349988581
366.060900301332993 133.531278582451449 206.388121122834889
363.392095135930560 134.277066162632167 206.214865641517150
365.803227424974921 131.985379430795803 204.922329332147513
371.167872110770759 128.883016190351697 204.461344433775992
368.594055941582269 126.111367880471875 202.435586809394152
363.235224570878984 126.654680196984430 202.267663263742207
372.546513423597503 121.453693014972600 201.459876755405929
111.595746776863507 92.479056936630030 156.212224034707731
106.415760569227928 93.338331029800770 156.168287709669414
105.866318070596321 90.477294419923254 154.352780595960553
119.481477303157192 85.504685376058603 153.592194089973532
107.187012239198623 87.295048375713577 152.912025381640319
104.816594730762461 88.139958271843852 153.339125725231668
101.597324204556685 88.240567342343610 152.616290260271967
101.033478123932184 85.366580958577060 150.794025927126057
106.937181966898379 82.626103649414759 150.364303360326375
99.399030404998427 80.132780871966787 147.952859266817143
750.084778440241962 106.879735178912114 239.484509390732512
755.181055704891605 101.653967115391396 237.263678059183718
756.686461969528864 100.086868662324235 237.163351126236165
427.804250948335550 154.455958060676892 224.444413305836122
425.164897040586084 153.622647362740793 224.336081238196527
422.232201155319217 154.643509347022786 224.182484108251174
424.117859002345654 152.680576440136520 224.056815527732425
433.426119158543258 149.046281471919968 222.605193101032654
413.730737540002110 153.568274003039392 222.593447788848152
423.654618680105159 150.640100477651572 222.329730176239224
399.035514825945370 156.537837208357359 222.991655024188049
412.175827913452849 152.324638846310620 222.240475622254166
423.124336116169331 148.713411601991396 221.651495044066706
411.897732217359135 150.603790466330707 221.075345682830630
425.102149764430123 145.766813392740261 220.714247195767712
425.131208463443954 146.511321648052444 220.211514589482960
422.101511647726909 147.102897827394571 220.353964589914852
395.839018944091436 154.066674163960244 220.460077530684117
424.398203599949909 144.216023870820322 219.897618840383132
419.321884927283008 146.020907120724729 219.555773500699473
412.031538392631035 148.006988489606556 219.582922229857559
425.886647695473130 142.594512150472468 219.351176446708962
389.773453846964458 148.587146543305948 217.932986778425914
413.918373986675874 142.253589412896133 216.906155729769097
416.331099962663018 140.057497624556447 216.875061240488321
425.018430748483638 137.609173365270408 216.132067423423365
417.278933743732921 137.616390051521051 215.602655944128173
405.513123000540759 140.772650063693561 215.311638472522247
401.424979299808683 141.063759544915513 215.126288339429834
388.519738714009804 144.768204936832632 215.326923775171394
399.093191508547079 139.823865873274173 214.227239867789933
402.819061412901647 138.151110731083691 214.433156633597036
350.993577595539875 149.916148502914382 213.299519072907202
352.986485888881134 147.841569980848590 213.166702848201595
353.976450344522050 145.561692112133159 212.101112529213026
349.506739982447641 146.138976446644222 212.098355050219027
355.309283366612931 143.901669541486029 210.846793979694894
353.781898287199056 144.630304483928370 211.842857855980469
348.456891016484406 144.772728966167307 211.303769487593854
345.776135531979378 145.401727940630167 211.189284922054696
343.050455825400263 146.104764189083113 211.212414055648196
362.903425179306851 139.398312871974838 209.740065996155408
350.768598581050298 142.569409979722138 210.149422692553230
358.403015823179544 139.952307636672998 209.059049013589146
358.427871780427381 138.068917165782267 208.167907136303484
355.691946559751273 138.788306830123076 208.196813059164327
367.416490005062371 131.613358153595698 206.783972957220442
353.674855612977410 134.380094892255926 206.512298302022231
351.258147100022427 134.004761072339704 206.136558404125594
367.432093608233799 126.082824171590033 204.285482321102307
355.841092632280777 129.650979554952670 204.080228067556646
370.932924238162002 124.597371321398583 203.509685583245187
365.415965236259979 124.837286783090633 203.463976410316036
375.098093527107892 120.746466642717394 201.680416081476210
369.549942382389702 122.205308631360339 201.739034068473103
355.425716180195423 125.533252044398040 202.520140679964811
107.492763154523743 99.034799981044017 159.796311782342343
106.459451623666098 96.716667034348802 158.784899527672025
113.921892961516562 93.922350011275739 157.898081718975106
112.060461044552994 94.548459876340644 157.593590866791430
111.868915327670322 88.999989364609092 154.814267740619670
119.231251447576824 86.296856926766665 154.836195821999723
112.748461958813323 86.816099714302936 154.083689386079897
109.353274568162817 86.600133726146623 153.295166207995550
114.812832449346899 84.508127586867573 152.896104417559286
115.820915641588215 82.538077500825793 152.586701752987267
110.969701048929835 80.929489161990176 150.897214582883493
99.488944545888444 83.559346339424195 150.582970838063318
750.797242824329601 103.261370923708455 239.220273520911377
755.766942794862643 101.093574481292961 238.849060621092377
753.578684519612466 101.723988270966686 238.549462836699263
753.113634640482132 100.901177390381065 238.548427578292205
751.275211063357347 98.917702732951909 236.629565655164924
421.229971386747820 157.200696959555813 226.967267006753445
420.874029167116475 154.300624996734712 225.503854423535074
429.239877942958742 151.070937153591700 225.015884409464434
410.009131915943613 156.118441005604723 224.872103147390419
407.366943513639626 156.806558699699110 224.897269553032714
404.660787324211356 157.099220994665103 224.603141040823743
425.444161854863751 150.122094006801433 223.313030670195417
416.417910648710858 152.469705044671684 223.792159932785353
403.592688428718191 155.296533541991124 223.123516320522867
401.414607709990946 155.645546356189215 223.205385554959861
425.106468327445100 147.730511578920897 222.206763530555747
408.551320936294587 151.803042463692975 222.624790910002389
398.551721832006820 154.264197689579902 222.380593790486017
413.867440415545047 149.314283491134688 221.448410882806542
404.958668937425614 148.955250581012393 220.425786168882581
418.331759395139102 144.328120067398856 219.871857689264488
415.874391674498497 142.355782700903745 218.714730588823869
417.736383467241581 140.869528333247274 218.255997126748554
415.962366214189217 141.635868826999598 218.394067750602801
406.729770480812476 141.425602747290469 217.388710158733460
413.923761688306172 138.485965299198682 216.765576862346109
345.232322504195054 155.429301471331655 216.267795583990761
410.993182200313072 137.659977959118976 216.200831468300748
418.604823743111979 135.025264906827573 215.195711455920701
394.445925407888012 140.709902340096789 215.183990007002222
348.934940855283912 151.098809529212218 215.426179716847003
399.904997569817908 138.068503422464573 214.516409657099814
396.452329630839131 138.710572178411581 214.284363605901177
410.128871059838787 133.779467067627394 213.936789936711307
351.758578865095501 148.371716125626591 213.646509331156778
346.066235108250680 147.121256406313051 212.733228517860397
366.109217231068897 140.703786616171101 212.291797498551091
343.158375833837908 147.057005369400486 212.130420015126418
359.459509069700459 140.602642495903979 211.030229841859580
355.213665951988901 141.774411740599618 210.737445121507903
355.990971112495401 138.755817774755712 209.789382683625746
365.980425160087634 135.168870661362547 208.758011801126457
363.042350966631375 132.056591944001752 206.979972322593056
362.583769663641760 130.678296329020014 206.860778915073070
359.995136176788264 131.313916849022831 206.623523426033387
367.824437530287582 128.134439644435986 205.699177763968578
364.733257910916109 129.381800959203247 206.085554949363654
364.835699861026683 127.595686184537954 204.943932175584422
373.546452538006633 121.666663805003168 202.950249530183299
369.752871694956980 121.861456177861299 203.439924652074325
115.956266353494016 102.811570985382588 163.299325053844967
111.244614334851349 101.785256820647504 162.320377697818998
114.689130746833939 96.690061145183648 160.622260264256624
113.403885001463721 90.287911615995029 157.372510679085252
112.052463053429108 89.858062986242970 156.623096020290149
113.059275018441610 87.890497200435789 156.314083523012641
109.918475959317050 88.733388816410695 155.540058860200958
114.979369217363796 86.245115486769151 155.267597517322486
116.524469528907389 84.529845066324896 154.713092916899456
102.780897983170576 86.867092559703082 153.931168776959396
118.064415776820681 82.271607303088359 153.337687391351920
112.368335667857536 83.994627335153481 153.672067364221505
101.727527574675662 84.525489033538207 152.917015547106473
104.738475446641701 78.186884772581749 150.614669834382397
112.488249954362061 75.422079014955472 149.986351692916202
108.672112812792932 73.198314154893339 148.599293810971005
754.853651477945846 101.759712261408652 239.985993514394323
426.082335934841069 157.197268779385553 227.907463379491816
436.375887774012654 148.639621212253758 225.193141005099790
419.785494798139609 151.983599351825347 224.801520367499450
421.113479885915240 151.148340259413317 224.426935810719840
419.095139066843728 147.952823223327954 223.067019667607639
430.099514787691646 143.711382797094956 222.697010874535863
422.396534230163979 145.644769768978335 222.447102810014968
430.513348858729614 142.673440201579126 221.729961335520983
427.967821332369567 144.160987607313189 222.009283331966344
412.546284889786591 147.219918428863821 222.251487731574343
402.678035278944890 149.883289400800152 221.715314656414165
397.225578310862375 150.775087027018259 221.459982740519479
420.159353623317259 143.982605522030440 220.780361264423846
413.836623803782857 145.665225703075805 220.846574117457180
394.573229114447770 150.211953251574528 220.985489530606287
389.616702602107523 151.045863667301234 220.580549496225103
417.767074278944506 142.594601978440096 220.003581738302046
407.534437126916316 143.691541962889602 219.162487671050826
395.370270348519739 144.683474629760326 219.012562758430619
418.345032614462809 137.878301112607545 217.768713354061788
420.621146740991492 136.644685424869238 218.033266401588605
420.390705920456412 135.682309443391716 217.441327815744131
406.484082477992956 138.926153771363289 217.500042916399480
396.585425520339527 141.844234874371978 217.054025983231440
413.691112552619529 135.342912488776562 215.698599928070820
401.612946994097911 139.109601779011797 216.203798663059985
349.413906326875122 152.184152255232959 217.222643553308700
354.771813403489318 146.749558302752490 214.323803147012939
363.931326381432029 141.978985278278429 213.239192790668966
351.658015582509222 142.584953995472517 212.657129707905767
344.744768692421076 141.042437980736395 211.177930226019157
362.539641723453769 136.364082776150298 210.029003343791771
357.864800681243139 136.494718744815032 210.493165410921392
355.173689078515849 135.868935352208553 209.193006592973404
349.939793588125099 136.986337287405490 209.430363963579282
365.621351819292386 132.147710411968177 209.050614370211065
359.935828734155166 133.347241086035496 208.414126406684147
357.182198631166614 134.175785094310612 208.815708646720083
356.222265600572428 133.198505924272325 207.788756340456302
361.971272641559949 130.425683894430591 207.323775558479497
358.954382152197240 125.186409215822323 204.353767909465120
366.947798818371382 121.894407050409143 204.357572314230396
365.979723392016979 119.314393547453392 202.449307354252454
114.495565132426634 98.758636374619101 163.019205601270386
109.209921700750897 100.515517822253912 162.910163447857400
112.526398299588152 94.100212726670605 160.552247155545132
114.787747186433705 91.341637550851601 159.344806778832719
106.063918441451449 90.168290073220305 157.273357035104056
113.461459966438554 86.082578353254817 156.796620488949145
105.510644181506166 87.298866346805170 155.462115345212254
103.966110603462766 85.491631727652504 155.251060256149458
110.383871896406163 81.610179201139601 154.007818550414726
99.695477895744716 83.256890699482454 153.509556957958154
110.323998441881429 78.856224522254934 151.972096971119299
749.151506987129778 106.841893458485515 243.348859832984829
756.903262569240724 101.819596755544978 241.394911429107594
755.843756763182682 99.913984263201712 240.870470560421751
753.306808934208220 99.276938328618485 240.245022872108308
751.234538555991321 99.460284985832914 239.620187921597648
751.229700034945608 96.880987545306880 238.333454472400405
745.608616570000322 94.593218386679837 236.859348423022539
410.702309015934361 160.136254280715093 229.288386068293278
422.784100048542655 155.825547639122050 228.866756337406656
420.185740742978737 153.834613517189553 227.499511095566731
432.562730944557472 149.949534089390482 226.966041343403845
416.272168454351345 154.957593215650263 226.758914406004294
398.795552479602634 158.561615915064209 226.760693029300512
422.801173378520502 151.203441547873950 225.906336399826955
