ply
format ascii 1.0
element vertex 790
property double x
property double y
property double z
end_header
156.822285467144695 174.198333005452810 438.768343930594597
-97.775364894379436 261.803140847554118 438.836832253188959
-33.098997505463430 265.765437337352409 438.746540099640811
-146.339187674390018 271.542985579740503 438.754389438177952
141.075421720655072 135.216218056295247 438.901788163753565
159.347576091142713 139.074396654340035 438.849547299402786
160.097958141753679 149.765370220811633 438.882400845811844
-57.827913546678232 241.342475055287196 438.852331124067518
-48.568844285375732 248.758633819719421 438.854533753800069
-24.457335347102969 266.617658002950293 438.902275381088032
-145.741755470765924 285.496777854504103 438.841075577653385
-147.898012926475189 290.177513366678454 438.857518380747592
168.080084229486658 136.640617403092847 438.989683458900970
141.916329379776784 141.724826553056118 439.037764227441357
-44.301935422808015 254.079673523624933 439.038764218920107
-102.811425694096641 264.994743256600145 439.020444840596383
-27.065901935409542 265.879789615818822 439.021596490523109
-144.691453755765110 274.628922996154643 439.032943599949760
171.707329963746901 130.754423011443123 439.082200150592541
136.724706653903240 138.366260759020633 439.089864991161335
146.603092321011161 141.966955403293014 439.051715387534557
140.808917510197602 184.379761651616491 439.103579619327832
-124.237280225105295 248.888887654452788 439.045012728751374
-121.485219341179686 261.432909962794724 439.052356196570827
-138.289785972994650 267.522718494852597 439.100319996143980
-15.195442270452560 276.900665544501180 439.068161795616902
-148.004346133968056 284.183745366579615 439.049063679601318
161.566948960878563 146.603942202106964 439.149210446364975
-53.779121900000007 236.052764772040518 439.175263499999971
-126.099907444906066 252.169190419335450 439.194640271360697
-146.379497788829070 282.484399086868393 439.149398617342285
164.197354526906139 136.920522705103622 439.267335631139247
-54.607281963708459 240.063358051563796 439.242625611753340
-117.981335298972695 248.484845776322459 439.332573258295554
-49.179385615995500 249.125356430035481 439.290410283457902
-90.115289051654216 258.075689373139767 439.325898075727423
-143.749145778388197 271.764371016810060 439.333500134191581
-141.887509192663998 275.194923815766174 439.263971479089093
-153.936369135848395 287.937833825638563 439.264394175207542
-149.963198151278419 290.133848501628790 439.313407767909894
167.838623118386437 131.011572407300946 439.360209990453370
163.045473442228570 143.436924092681579 439.418233668328980
152.389233406732501 143.736824343283160 439.347338012331193
-123.405551000000017 245.052764772040518 439.365464999999972
-50.496384900000002 248.052764772040518 439.428865499999972
-138.772565303796398 257.836201800134290 439.433003665678029
-98.793063395580262 258.475517817154810 439.392094863048328
-34.209349133339984 259.658257856279874 439.410731471374277
-139.717748001733099 269.239583509198837 439.416807679958424
-150.038009713741218 275.738497362543512 439.340842466402194
136.972060516094132 135.840913778428785 439.479301712145514
150.403535322062794 173.688614772640335 439.440255830082776
147.474724434713352 181.087420727819108 439.516563460328655
-125.456909400000001 249.052764772040518 439.449998999999991
-97.074950612603814 254.110536069773730 439.465035517460137
-136.453719792069478 257.202477783414452 439.510248564547055
-133.476403772514800 263.812233396355282 439.448346343265712
-41.086638964801992 264.795764022074536 439.450200334250496
-105.580564305826442 273.108980653229764 439.481016109942288
-147.012362169132388 279.462521842168030 439.461330618946533
160.301212923164314 137.217444388227705 439.555099353878973
164.215749027273716 139.300608146499826 439.578546848757696
-59.627764863126181 232.221065622845799 439.560665671134359
-58.177241980275873 235.709629740409468 439.613859973810690
-128.920746476196939 252.695504771208448 439.624931394400903
-91.528225779418577 253.461412717383382 439.605774446846112
-127.346244300000009 254.052764772040518 439.555666499999973
-47.541921600000002 255.052764772040518 439.576799999999992
-91.129060900000013 256.052764772040518 439.597933500000011
-95.312863572938426 261.690860264271123 439.588718202220662
-113.458669517925031 270.177222577742327 439.620720793571934
-23.792977884187110 272.715372596485622 439.565005555009407
163.485375564469592 128.133951543490639 439.672557971980950
169.026404154868686 134.797912852577156 439.689822070503908
-51.050150208271106 247.292497469689806 439.655504144604663
-129.349700100000007 258.052764772040518 439.640200499999992
-44.824153500000001 258.052764772040518 439.640200499999992
-37.099154800000001 259.052764772040518 439.661334000000011
-42.169785900000008 260.052764772040518 439.682467499999973
-39.614041299999997 260.052764772040518 439.682467499999973
-131.475730200000015 261.052764772040518 439.703600999999992
-98.287681800000016 261.052764772040518 439.703600999999992
-34.464511800000004 261.052764772040518 439.703600999999992
-131.144227331031516 262.267813360025116 439.646018380612588
-103.599028863845106 271.033968781393696 439.648109733284855
-146.557236800831390 278.218146085208332 439.672675491664450
-154.832955832626993 283.063624417996380 439.728504820720104
152.231706981585205 140.362947399236873 439.789211871833459
156.877826915297106 140.659951742839667 439.826518204681520
-53.144896400962352 233.980192634371861 439.789490354952363
-41.306603029791475 253.461607450471547 439.810137576671764
-93.049054448167624 260.050794876730606 439.821044353763170
-136.129326899999995 264.052764772040518 439.767001499999992
-141.061885799999999 265.052764772040518 439.788135000000011
-138.520230200000015 265.052764772040518 439.788135000000011
-31.770695000000003 265.052764772040518 439.788135000000011
-100.284093100000007 266.052764772040518 439.809268499999973
-143.285130000000009 267.052764772040518 439.830401999999992
-106.038210108390572 269.861520977758801 439.751783594716642
-146.109266806646332 271.740870565905539 439.760310319012376
-148.419075239194569 287.925568739422488 439.757903113466682
144.584394909670948 137.760653056200454 439.841971001837237
-101.672427227206313 262.776848862036218 439.863137447860822
-102.112619402585423 266.433842752410555 439.907989580133233
-145.497103000000010 269.052764772040518 439.872668999999973
-102.366447300000004 270.052764772040518 439.893802499999993
-29.067015899999998 270.052764772040518 439.893802499999993
152.668404000000010 135.052764772040518 439.948749599999985
166.031123391603728 137.086117601667866 439.962920976489613
155.124116699999973 138.052764772040518 440.003696699999978
-55.862732324552105 239.620167352795534 439.966284740119761
-124.361208508398008 250.386083451378795 439.972979708486946
-151.494345080325957 270.217628246469303 440.006634686153632
-103.409272734066235 271.835837491549796 439.985168386263808
-26.450688599999999 273.052764772040518 439.957202999999993
-147.203280900000010 274.052764772040518 439.978336500000012
-23.851268100000002 276.052764772040518 440.020603499999993
146.074928595021902 134.585708427129020 440.125340970514060
148.293906537901023 140.715206019979405 440.102918266223867
155.180551831326852 144.400650024217725 440.063950619777813
-129.539186423003343 260.170900681799480 440.056684314299389
-103.650939834162500 267.356140482351634 440.057904720279851
-140.715584645895802 272.912914701016689 440.131024579283064
-21.292705699999999 278.052764772040518 440.062870499999974
-148.881280799999985 279.052764772040518 440.084003999999993
-153.539104199999997 281.052764772040518 440.126270999999974
-16.227710200000001 281.052764772040518 440.126270999999974
-150.331458874603868 288.065032391656700 440.133165026410495
-44.833016296907488 251.193824852669991 440.228536566559626
-91.239897074717291 254.238414943913426 440.173815599242403
-36.716887990947669 258.180762847791016 440.208773776499186
-100.641413838444592 261.849117276210222 440.178035264815492
-141.433423690670935 270.167197507603760 440.146860012247032
-150.872056500000014 282.052764772040518 440.147404499999993
-18.703147500000000 282.052764772040518 440.147404499999993
-49.953326162437719 253.365457327631020 440.258459112965511
-91.806955051378395 257.148417702200277 440.251960246393025
-103.272683357400751 263.668299276271568 440.242368877341278
-155.236521579230043 273.480132607097516 440.241335151453086
-153.579932005633651 278.281566019246156 440.241469241464927
144.342694193055451 141.084481021835018 440.426736211115667
-133.674089425811559 256.536260817039533 440.407282824012839
-43.786897416478553 265.073359529515415 440.423310540922103
-142.993639104113015 266.793290453136933 440.372047093497258
-31.661461407115496 267.790643229713510 440.434631708114523
-139.311226012617112 269.162183786241144 440.363940900943078
-148.892918412776453 286.136826440513914 440.391662612938831
143.372803023220513 134.804384340924571 440.521525928488586
141.981137496007875 181.996363022461423 440.485333302110178
-94.809236963022940 252.748863439157503 440.497285539540542
-140.870994127506037 261.323088437420438 440.446763585515328
-29.504063580807070 263.649776890572639 440.495679716892880
-31.272718672228564 266.522253906112155 440.478983286959476
161.971906860634505 136.000324007398149 440.601433362551461
-53.546213387094525 237.805529260291109 440.584120032117994
-52.076882195770850 246.662978555017503 440.613733507538484
-132.834208059298589 257.731882379099943 440.555683212041913
-127.313076293449058 258.865614498474429 440.573564913733264
-104.899211641500372 267.643626583194759 440.594476201981024
-113.161398919736030 268.107923790171299 440.634045999094667
-144.936823674388449 277.548072173127821 440.606846508914145
-97.747015976085194 256.233093837700494 440.726864968621214
-102.032721310050761 257.128957397296062 440.696690916370017
-139.989338591826936 259.019738597972491 440.706016404110869
-138.434164043726639 259.986731186391012 440.665426328869955
-100.533428760316099 260.558954467471949 440.705830055125205
-99.931290851069818 261.838292834583740 440.683449300031441
-19.651877048040475 269.873246889639404 440.670111964148816
-147.989890728968248 283.294864132270504 440.688877818835579
157.962336593696136 145.070065795873120 440.778349605813503
-130.384234463040173 256.382045917729442 440.780229730839210
-101.084707876746734 262.385373455829949 440.750394991131770
-148.364660595336886 278.889672768184255 440.776942332896624
157.588177051075689 133.163859763612436 440.931297723645287
158.553195138507107 139.435246059958672 440.872971435894897
-50.960896073105403 236.323839982695290 440.874953027411379
-135.993578670667546 258.646522732406879 440.885770150922440
-137.092266129731570 267.861090170956686 440.879161284318798
167.291798271372528 136.998698143195270 440.997582602018383
-53.511664871442122 248.002221651537297 440.958642364062371
-95.233049158410708 254.824577416241254 440.985757468654640
-103.169305465529092 262.815058609074299 440.963133383714251
-149.060901722404651 273.301052332028689 441.027510822672525
-146.071286841122543 288.941260294918152 441.012597943131823
-99.517710083027126 256.584891550186853 441.098346796137662
-147.367057934558147 265.507958693413570 441.100363132231678
-143.393129980437038 270.500959173299634 441.072510639612005
-147.437798755965900 276.033735233138600 441.079691592320501
-152.746632465702021 286.424607422615168 441.048834619454794
-157.974331483449191 287.788626394997436 441.084334745028002
158.787539548220167 136.941297972082111 441.239426794591623
160.610655963976853 137.765907488129642 441.222022306804604
145.309745353916185 139.201407943795175 441.142212910859428
149.982281785910629 139.468205875198237 441.152316663955503
-136.126123996791989 264.982562964809858 441.185251872087804
-42.193998010583577 267.717232365498376 441.239318460963773
-143.367804305667050 283.931197032634259 441.179788239362949
153.670293234791274 133.483402556884585 441.246383248677944
160.088343269887162 143.823475565117292 441.271987180433484
-32.019301321994561 262.168134989795362 441.292010167943431
-106.067128162799818 273.533991849778090 441.298364075019265
-146.715938761785878 285.939302892852425 441.322487018696734
167.524515892606360 134.510951024611813 441.356156241487099
-117.351741325683136 249.992961261326741 441.381109901756759
-92.920669235947727 257.726528189927762 441.402637169788875
-98.300642974797370 261.908278665308558 441.364614874440463
-100.339837575855157 265.627041694549689 441.438748771345217
-146.501403254369734 273.172207607372002 441.384654473155194
-148.260342525085520 282.560749012265546 441.360109765299171
155.359682906632486 140.389477453731388 441.514216162228024
-134.214133378009194 255.105905982444824 441.501558286235536
-41.495198742749565 255.231611431716601 441.491376150589815
-45.006613201575888 258.463552988702418 441.538349205975749
-122.631290264464837 260.743604566913518 441.508663311922874
-26.462309179668978 269.471768601806275 441.521538642376868
-148.364409143198543 281.037078490241583 441.481681545857100
-56.419317902441598 245.644498904447914 441.556367036315919
-128.649290815811980 254.602790152727152 441.556888089267716
-143.469961519896430 261.534855957447462 441.556366841142619
-139.267016761275272 267.966627865958912 441.589493933874621
-146.228250278667474 275.541437913460868 441.552949254147734
163.640161829224553 134.787952865101261 441.645962890266219
-44.522724871391517 255.228504460367049 441.724729671093485
-133.902397282793913 263.678674304165042 441.701579066168961
-103.577328511208506 266.598638608455531 441.714867939229691
-17.487009850693170 280.470266665302915 441.715437096792186
-53.836886800000009 235.052764772040518 441.780319599999984
-57.033494850497483 242.628698174800888 441.788631145007685
-144.918958731016460 271.088101941486002 441.795852915965838
-142.863724148524312 275.638371742619938 441.750557917923970
-155.262157885649714 284.919254242374564 441.820410030625283
-158.553537758464074 291.159396146994368 441.769399258061981
-124.069991950815009 247.766637150038832 441.851542886533423
-42.634787777175710 262.262483495580454 441.933179274791712
-148.194630941180833 268.793218741258215 441.849997867979482
-107.874557014819274 269.901271669421362 441.885227443422991
-153.810739237176790 288.816659651667919 441.911098889089658
-50.551332000000002 247.052764772040518 442.000108000000012
-50.452268814136673 248.519205954086146 441.958043938902335
-43.597116150926468 250.515001220721842 441.971129552251341
-151.219638649530509 276.486563022972746 442.017623382921499
-21.993161602433375 276.767511865973574 441.999982973510328
-147.990608789833260 279.906892657527123 441.953092055572995
-13.739380482022085 283.774310014700518 441.952135367935568
-125.320246099999991 250.052764772040518 442.055055100000004
-127.346244300000009 254.052764772040518 442.128317900000013
-47.594050899999999 254.052764772040518 442.128317900000013
-108.179691754111772 258.744613550633517 442.122115623974707
-34.529121479405759 260.688025525959006 442.088092807759551
-95.628049951980273 261.243371846094078 442.117127873521838
-153.563456463531423 267.274573732645194 442.095578801417048
-30.222571343233298 269.819092381182031 442.127128771735215
-151.919272212501909 272.054775702078814 442.077704186796836
-105.493826130828666 274.012159308741957 442.098463476931670
-150.029093208582481 290.936347683635063 442.073401221267716
151.668218065040833 138.225954968949509 442.199910580729352
156.315758707533973 138.527775949087072 442.221572697661998
-59.702004797880768 233.083796118773648 442.217652201669921
-93.696076700000006 256.052764772040518 442.164949299999989
-129.491999000000021 257.052764772040518 442.183265000000006
-44.824153500000001 258.052764772040518 442.201580700000022
-37.058296700000000 260.052764772040518 442.238212099999998
-34.502552100000003 260.052764772040518 442.238212099999998
-131.678670568795837 262.374785643520113 442.217906260250174
-141.615974396612017 265.566816651396266 442.170957495849052
-148.773658618166507 284.766334568513912 442.187274954397424
-131.475730200000015 261.052764772040518 442.256527800000015
-98.287681800000016 261.052764772040518 442.256527800000015
-42.123292200000002 261.052764772040518 442.256527800000015
-39.570365400000000 261.052764772040518 442.256527800000015
-133.732788000000028 263.052764772040518 442.293159199999991
-136.129326899999995 264.052764772040518 442.311474900000007
-142.682598741919833 264.144250415854572 442.251885833436461
-144.289551990234600 264.810559020971937 442.293252340098718
-138.520230200000015 265.052764772040518 442.329790599999967
-31.770695000000003 265.052764772040518 442.329790599999967
-101.107899300765112 266.615078958089612 442.289358222887586
-142.697615432574594 269.785610803521308 442.311626704694277
-144.498939565358853 273.767958952890353 442.327085994529341
-14.088282291270630 286.052352445360498 442.327588955152635
-55.471779110602441 240.854726372533605 442.429411134354552
-94.688562652636506 254.013575782220300 442.364365232453338
-141.776100871874291 258.876803176791668 442.343429934404583
-93.929458844601754 259.345222069785791 442.379560291315954
-34.504587318778704 262.451375751499313 442.360229719645190
-100.284093100000007 266.052764772040518 442.348106299999984
-140.749110000000002 267.052764772040518 442.366422000000000
-145.659126500000013 268.052764772040518 442.384737700000017
-143.125924300000008 268.052764772040518 442.384737700000017
-147.862646100000006 270.052764772040518 442.421369099999993
-102.366447300000004 270.052764772040518 442.421369099999993
-29.067015899999998 270.052764772040518 442.421369099999993
-52.354886408730465 250.365344790503059 442.503456862741359
-57.269595976699406 250.830743683788455 442.515581007434378
-135.084078458931373 262.342940961020759 442.510568181004658
-26.450688599999999 273.052764772040518 442.476316199999985
-23.878037200000001 275.052764772040518 442.512947600000018
-149.384258100000011 276.052764772040518 442.531263299999978
-156.716215978486446 279.363584425575482 442.448945784939667
-150.964224834650054 288.304053523597190 442.525371012970481
-57.390748719115486 237.006735669745581 442.554313529522688
-55.927422463485165 240.474918500422291 442.606963259342649
-127.575148248212614 249.242770096756544 442.603532604425197
-45.897069634034381 250.464170973295609 442.602751968362725
-136.747647719207350 257.596638855242418 442.570609836617962
-29.124243981763897 265.551438509590980 442.625457672472237
-39.388000219942569 266.462015923885929 442.635359971550372
-102.278363933349553 267.549360489079163 442.581472003285853
-112.633962507409350 271.387784528987481 442.616159478647205
-103.324917974624668 272.740413669742111 442.602062347900414
-141.691799601756060 273.356362627870453 442.617611018117941
-21.268754399999999 279.052764772040518 442.586210399999970
-151.042533399999996 281.052764772040518 442.622841800000003
-105.508192928988763 282.031196934425111 442.605576562426108
-122.131207476013870 248.618187155751230 442.726764379559654
-97.377220972100403 256.529574522814301 442.674256944515093
-129.454943854797762 261.070896982875183 442.734233454331275
-33.528480204978266 261.646835375025262 442.647316120543508
-143.612472553286693 262.738711102612683 442.669128709530753
-106.734339063489131 267.681002655591215 442.728822291166296
-108.189896898275919 281.272640648589231 442.728243123527534
-18.703147500000000 282.052764772040518 442.641157500000020
-16.209394499999998 282.052764772040518 442.641157500000020
-153.192514799999998 283.052764772040518 442.659473199999979
-46.077994581737130 249.047016633815247 442.770016372129760
-99.289511187974696 263.375597651555836 442.771635039817681
-22.027932872722928 266.884721318469815 442.816440686762689
-140.476272134132842 268.483119665556615 442.827400493422715
-102.967447289315601 269.064096607429974 442.790368998087558
-150.069493042178806 285.466513091611887 442.826439160107327
-100.855444427369605 264.005484878904781 442.846183211313587
-103.197105185410805 264.576473078585764 442.877452078816418
-24.628373085365013 266.149151586750236 442.935390079346007
-142.314908106539946 270.315488429041011 442.936760943553111
-147.731590315590154 289.822184609658279 442.893773109564904
-125.009708718787223 248.582467233342641 442.988717362079171
-145.458980166111758 266.610886063622161 443.001604709879757
-53.822430590011777 246.856398026537590 443.124262531916884
-133.902757645173523 257.621335904811531 443.111437122069219
-100.349560844135951 258.751319604041214 443.090010446469876
-27.228813298007083 265.413581855030543 443.054339471929325
-145.914054462669071 277.991981544234363 443.096020446644729
-149.165227587482491 282.623382568905640 443.129720928655047
-132.245445145610347 253.042168528980596 443.181279030382200
-127.848092353547599 258.972701436078182 443.148209372019949
-113.687822644822290 268.213290916143364 443.167341777644424
-53.652341454580622 238.988818541054002 443.243893763485687
-55.138920508191063 246.446347172583387 443.248747969883652
-38.299121475553960 257.067597380156712 443.316602211777081
-30.222570219709894 264.557577286499736 443.283414058223684
-102.207745762048958 268.563842869441828 443.266158173997724
-25.095013633326772 268.777876841336820 443.243511202808293
-28.019066051379468 272.260847648566028 443.318206235657158
-148.895666899096341 278.995957127026600 443.332290740639451
-48.473534768735931 251.020378618889481 443.354449633269553
-128.355672934483209 251.976249389325176 443.432726890864558
-101.375340489774885 262.376436662680362 443.382076416012410
-138.254928835691089 267.180628527591921 443.343174282151153
-148.034898941928702 278.355201457909402 443.358390392541992
-159.817075977507443 286.351361669629000 443.425541364646335
-51.068224802464201 237.510676494489303 443.536088947003918
-48.275821101740014 255.057695245364698 443.461373574913239
-120.247589513669325 255.676997510360138 443.505824342139192
-148.611805717372476 275.360146549066144 443.538180984740166
-149.881869526834123 288.040428810166873 443.444574685763882
-147.043438467301883 289.382862444761145 443.488834386383644
-48.553455428771500 247.580564483850026 443.568655380773748
-104.411464858037093 270.743589304423040 443.592031793854062
-155.245402716898354 273.861142923092530 443.620842368965384
-51.132225306308214 246.851124499894581 443.686613528418832
-38.836568677088877 253.740164043049276 443.722444298087339
-133.640766828972005 258.366564590856797 443.688618986602876
-137.287548931863512 264.300933106982484 443.655331432571131
-136.926210934039545 256.848090590090237 443.761603153671444
-139.235243183141733 260.608846103577434 443.795116078105934
-99.272402992287240 261.902878102967975 443.789734416656131
-44.385892641930084 265.539105609629246 443.742483222027261
-141.140544590891864 268.028730075759313 443.805618524704812
-92.811262376730625 254.536412032756516 443.870774511244235
-37.341189697295960 258.423659561696240 443.914989458389357
-29.743623547109948 263.930091717376399 443.848586352053701
-147.674172444888541 272.497450708836936 443.849210428225774
-139.791542823118959 256.805151983150608 444.021383896498548
-100.343217773939301 258.772049004938594 443.965246631038781
-32.341354967863793 263.195288204127451 443.967411839019633
-106.227305288429434 274.649991178306550 443.974757177396327
-144.740910431460918 275.707597810218658 443.963975787317452
-98.254457573394703 253.138034919894608 444.047986165410350
-140.017325112092493 259.383529744942280 444.074013441004070
-123.164015035226726 260.850232888082246 444.072281455613052
-142.379068958285927 261.502912784481396 444.128362415979893
-103.823880198088389 266.252708599561402 444.135368416879487
-146.783256955549689 286.746089869138473 444.078088492201061
-129.982431958692132 251.681190954010162 444.213123594823230
-135.061438802309226 262.995646923657432 444.172212032005007
-156.301343346214480 286.603255834990478 444.142759962730167
-98.753776826489002 249.259833207406359 444.295268898084885
-146.089917328312936 270.412062174379571 444.263718855038292
-18.361621280817488 271.319794690646518 444.280026414091765
-54.010181500000009 232.052764772040518 444.360015499999975
-49.663578921863348 250.163981459206639 444.378806690200292
-95.662013417343744 252.470781500023804 444.437225499460737
-44.743847279593865 256.373591990806403 444.406495595376271
-99.309823341327402 256.513050799464850 444.420056206422316
-96.640328990117496 260.731888185301614 444.399870204129684
-147.426282087733568 283.737931497779527 444.395859286994096
-100.083445993904490 256.148207210157125 444.527485062337860
-131.911456115663441 256.593085630286623 444.462755726984483
-106.624246598652462 273.317880439433225 444.503502408655720
-158.789606308594273 276.401597124447903 444.519509478719215
-157.143708063170436 281.211821302446310 444.532516711140090
-50.551332000000002 247.052764772040518 444.592484000000013
-94.518874300000007 248.052764772040518 444.607981899999970
-137.511565403752684 258.841143947439036 444.566731200440643
-137.166589962197634 259.407910994575559 444.612509344294381
-101.158096356935303 266.310777196894378 444.596841714896584
-145.198797723952794 266.516027362101227 444.606192786136887
-17.237444848735436 270.130168183704995 444.578769990748640
-151.003276499602293 291.378872721983271 444.554812662311008
-56.235012824635582 243.913075517303582 444.714581170364852
-47.594050899999999 254.052764772040518 444.700969299999997
-127.206763199999997 255.052764772040518 444.716467200000011
-96.800812474805454 255.111932811991323 444.678629815982561
-95.845142625026767 257.943050908618602 444.732821526120063
-38.856187742654100 259.810963396338366 444.701325352072615
-43.318338860616826 260.145436938868556 444.725857897089668
-39.620195908549810 269.791277444538309 444.715282269812008
-148.064429282157874 280.720274649356270 444.717239043702591
-54.755224742905185 247.353753203294445 444.769393048765096
-125.175102809293122 248.739102518635264 444.803080625162806
-127.347025104124370 249.779127929554875 444.756453852830418
-134.655262838943031 255.483156145031558 444.792564327085927
-129.349700100000007 258.052764772040518 444.762960899999996
-44.824153500000001 258.052764772040518 444.762960899999996
-98.396167100000014 260.052764772040518 444.793956699999967
-42.169785900000008 260.052764772040518 444.793956699999967
-39.570365400000000 261.052764772040518 444.809454599999981
-36.976580500000004 262.052764772040518 444.824952499999995
-34.426471500000005 262.052764772040518 444.824952499999995
-131.771863653280093 262.267261349527871 444.807373319943849
-41.803794258509576 263.513885760367771 444.816401727022139
-143.866190614314860 269.108173513734641 444.780046049119449
-143.567766400252765 273.423214076202953 444.831931127990288
-153.447105874684780 286.086342484770171 444.755935724019992
-133.584853500000008 264.052764772040518 444.855948299999966
-31.805917500000003 264.052764772040518 444.855948299999966
-138.520230200000015 265.052764772040518 444.871446199999980
-135.978574600000002 265.052764772040518 444.871446199999980
-100.395396200000008 265.052764772040518 444.871446199999980
-145.983173500000021 266.052764772040518 444.886944099999994
-140.905497900000000 266.052764772040518 444.886944099999994
-123.082450908644105 266.614617020406513 444.928013315969167
-148.357170000000025 267.052764772040518 444.902442000000008
-143.285130000000009 267.052764772040518 444.902442000000008
-29.131825299999999 268.052764772040518 444.917939899999965
-102.480568200000008 269.052764772040518 444.933437799999979
-107.047209811082325 271.114275637935066 444.865924153061655
-47.049691629388448 253.006361430036463 444.992719046898799
-100.354616720991501 256.298895870876208 445.036519974004818
-102.686101215638118 264.037188824263580 444.977158783665004
-150.390212700000006 270.052764772040518 444.948935699999993
-104.452955026892255 272.044737277753256 445.007654684977183
-26.480275500000001 272.052764772040518 444.979931500000021
-104.543197800000002 273.052764772040518 444.995429399999978
-23.904806300000001 274.052764772040518 445.010927299999992
-149.848465155288693 286.836082173270256 444.953941773280917
-55.577383498982400 242.032846792711780 445.085619949923910
-46.413182557105870 250.567474325309604 445.086429331228146
-43.337201596477499 256.200539711637816 445.094007638300184
-151.553964100000002 278.052764772040518 445.072918899999991
-21.292705699999999 278.052764772040518 445.072918899999991
-156.387900000000002 279.052764772040518 445.088416800000005
-153.539104199999997 281.052764772040518 445.119412599999976
-18.703147500000000 282.052764772040518 445.134910499999989
-16.209394499999998 282.052764772040518 445.134910499999989
-152.562674627233832 286.068331265787833 445.078095201789665
-156.797166230176373 292.673796870013234 445.084088459693930
-57.457674174908732 237.864322880891109 445.196677307162531
-41.224118260780557 251.528405942496875 445.198340459581232
-130.182145402354763 254.819606669716109 445.236892467365919
-104.094819393029297 268.367366655087380 445.204784476464397
-144.191687085437309 270.380888146612961 445.157158291696021
-147.712899319218479 275.681026831486292 445.231737081831227
-149.839146281444243 281.161870540295922 445.161107154487183
-151.896791398231244 284.020633921944523 445.165453054543661
-155.276884099178943 285.300580358305524 445.202248630298470
-55.990080937577424 241.328746759543492 445.242466780774009
-32.902212317206533 261.316037065778232 445.289565561275481
-148.168190779670113 268.354247318773332 445.264154798900563
-122.286113370415862 249.700282363768679 445.368677867785266
-129.369555641923853 261.970663975733260 445.406269437065021
-141.010142549563056 268.589977294942855 445.396531794411146
-19.762662773306246 268.641764935292031 445.371428922415930
-101.565966098953723 270.101147686413924 445.354343913783964
-149.833790921713955 289.101612845766113 445.420061281547191
-103.120381368752646 265.484417572682446 445.507022122993305
-22.360394194060163 267.906961422042741 445.490254409381976
-142.201360516451587 259.246139599201229 445.632669193202162
-24.958125614814065 267.172157908793679 445.609079896347964
-104.800532031455518 271.060481277672920 445.624173789420809
-111.805192167212880 272.596500703221750 445.601248168139364
-50.681039801352703 252.064706566035056 445.703664603252491
-128.383108413646141 259.079788373682049 445.722853830306633
-100.443248149325527 259.861636892769752 445.705961890506785
-27.555857035567968 266.437354395544503 445.727905383314010
-108.347367425782650 267.800633019627298 445.682526771956361
-114.214246369908437 268.318658042115317 445.700637556194181
-105.909430828632054 268.898755862637245 445.707714519847229
-22.251006701132653 269.945111167002665 445.728691015082404
-149.694515424239512 282.729322965421602 445.676799600450408
-54.117967648464088 247.881206022720221 445.788131197806706
-44.197090364172311 258.889555824525587 445.831867948135255
-101.548322233187747 261.821669048965646 445.818949150450578
-139.418737186318708 266.500396192444782 445.812700437281762
-37.683266480561741 268.125499160180993 445.804994615475607
-150.071484453725134 278.323651311525509 445.787470149057242
-148.990782462308061 295.023434698946289 445.799408131461121
-53.759823487600457 240.168864562709246 445.899262039706173
-57.448707537293217 251.124218843190420 445.861594577162748
-121.888868083619130 261.328576441292284 445.854667218031182
-36.659758885792073 262.222921387907604 445.858840253514529
-102.772004329249640 267.957357092942402 445.883266766851193
-146.298603999510249 269.765290986536684 445.853957199930676
-104.484200673028127 275.289392904299802 445.848867047964006
-145.988078607013165 278.807276711076611 445.856677695399753
-92.169482713635475 256.073716849728612 445.958960251030476
-144.032331272538954 263.106657413730886 445.959178883607535
-100.937172719211048 264.204286797601185 446.013941426078304
-143.016104085349269 268.091755174065042 446.026918113326531
-145.989221539829373 273.913324675347781 446.003352204165935
-149.786958323447379 274.686787173211314 446.002183534458027
-149.572186273502098 286.460552475863892 446.013707367218046
-46.277921493266916 249.330665571699342 446.112854044944072
-42.878775507228610 254.325036432970251 446.058210365544937
-34.665943746671005 260.221320783898136 446.111386354905505
-51.176907497356979 238.694269747175781 446.192819411449022
-137.822564991961940 264.408020044586237 446.229975890857816
-148.848087280075447 271.822923118519384 446.319279540594664
-150.214804101646706 283.448567754478290 446.338457640760396
-158.375606005978398 288.771995094862632 446.278671536058255
-147.762141788363778 290.197065177889272 446.274271572015437
-51.430043664564010 247.873318040729714 446.348522528999752
-39.892103995568561 255.981309957238977 446.412210741313231
-150.942554542620258 284.421775857824514 446.412958132954998
-95.502192800303661 254.267616525377775 446.452998886965929
-98.670751609300154 258.043869098221990 446.499431035914142
-98.753964069669564 262.924156022520037 446.520860729163360
-100.844437599212441 263.635892856687860 446.458855875844449
-144.896621905852669 263.871446471620288 446.478263913533112
-30.067531000697954 264.952782239484122 446.519944786894825
-148.815106918521622 278.937384917983991 446.482225872074309
-123.696739805988614 260.956861209250860 446.635899599303229
-43.600832676919495 249.319712715826768 446.673740998606206
-98.429801810431243 254.238792495137432 446.701354340136163
-46.592221046521011 256.747164497582048 446.648763043486269
-100.410543250737362 259.606149273667825 446.660739517236152
-142.469703724378633 262.549886088561948 446.696288875941264
-108.436811092950009 275.799239693434629 446.650462566193710
-106.387815373677810 275.762247100532136 446.646950751883026
-144.816154060244997 276.525267596327126 446.723730795593667
-150.365225341580867 292.811287129947686 446.734991967576377
-96.161063760011061 256.644372740302060 446.760207373047990
-97.760458720942665 260.030026758673216 446.827525618513960
-101.639496480894977 262.667890706519302 446.780002961387993
-103.885515556726261 267.078762121986642 446.828393026721926
-156.175713447542989 287.482081661019947 446.789464676612283
-48.747537264440254 247.863897621798060 446.909161671427228
-50.180837489603107 250.267514119438033 446.867997210363967
-140.039030253624674 261.224474502549128 446.915994917047442
-134.971283758322556 263.892618871155037 446.845354825444133
-104.899870808421511 271.148324093843598 446.892537708753650
-145.986699561876776 271.301817200258483 446.934115517942701
-53.952416600000006 233.052764772040518 447.007338599999969
-124.269118107432476 249.920582713804038 447.013596273198004
-97.349887944841839 256.321910637042492 447.036830327760867
-101.033249306838243 256.579657586440476 446.946796529882704
-34.460622097862242 264.641365897691912 447.025166065250744
-109.478390910034918 271.142124650869846 446.965708079591536
-107.146087745065415 273.422330332535012 447.014745558012464
-129.895514420479742 252.195599451638373 447.105804195768940
-132.994901313804689 252.714518981847618 447.111834670904273
-39.052320847862944 254.017367433233062 447.063941833679053
-137.362438909076502 257.218335531931416 447.047120817965094
-14.977164841010435 271.883831126709310 447.131922466710080
-50.551332000000002 247.052764772040518 447.184860000000015
-128.648301500595608 248.223749689535225 447.181703918507651
-125.456909400000001 249.052764772040518 447.210220199999981
-36.130756220987564 257.239891109396126 447.214927700461772
-101.248028372845297 267.417243282668210 447.214474237631464
-103.432149944168557 273.029232769690225 447.176826212413459
-149.041660070438382 281.164184020462812 447.206412981433175
-154.628355208979769 285.417885274983519 447.201185180432276
-127.446741486094012 250.849310221298879 447.331712902790855
-47.594050899999999 254.052764772040518 447.273620699999981
-127.206763199999997 255.052764772040518 447.286300799999992
-96.263092500000013 256.052764772040518 447.298980900000004
-39.304492463165033 256.844107238038987 447.250229197800422
-140.222536352640248 257.172135110548538 447.305612712126219
-129.349700100000007 258.052764772040518 447.324341099999970
-44.774842000000007 259.052764772040518 447.337021199999981
-32.573787382051535 263.469742520364775 447.311736379241324
-105.291786167250791 280.882420012158263 447.281606991989179
-157.361253436219556 282.323672543563816 447.260930426607217
-151.066124059645745 292.179987571231777 447.307043618981481
-54.809349253596146 248.200063558367219 447.391176057779489
-98.396167100000014 260.052764772040518 447.349701299999992
-131.475730200000015 261.052764772040518 447.362381400000004
-39.483013600000000 263.052764772040518 447.387741599999970
-133.584853500000008 264.052764772040518 447.400421699999981
-100.506699300000008 264.052764772040518 447.400421699999981
-36.894864300000002 264.052764772040518 447.400421699999981
-34.350390900000001 264.052764772040518 447.400421699999981
-135.978574600000002 265.052764772040518 447.413101799999993
-31.770695000000003 265.052764772040518 447.413101799999993
-138.366660099999990 266.052764772040518 447.425781900000004
-140.749110000000002 267.052764772040518 447.438462000000015
-29.164230000000000 267.052764772040518 447.438462000000015
-144.400633852079295 269.215145797229638 447.351933928757035
-107.962654968985305 280.126928600204678 447.403777930621629
-132.124769355795820 263.380012743084194 447.459626949324957
-148.192328700000019 268.052764772040518 447.451142099999970
-145.659126500000013 268.052764772040518 447.451142099999970
-143.125924300000008 268.052764772040518 447.451142099999970
-102.480568200000008 269.052764772040518 447.463822199999981
-150.390212700000006 270.052764772040518 447.476502299999993
-26.509862399999999 271.052764772040518 447.489182400000004
-100.924186435858573 271.638452503386020 447.442529653570375
-104.817466336652600 272.100975971447724 447.510380167166943
-23.931575400000003 273.052764772040518 447.514542599999970
-126.093663821820414 247.566227048704263 447.565266845603162
-41.873630862568177 261.438658497779556 447.630111497414532
-107.105390368420188 271.935118477575429 447.558165744966118
-143.644229513476773 274.243258481577755 447.590783895787638
-151.724441000000013 277.052764772040518 447.565263000000016
-21.292705699999999 278.052764772040518 447.577943099999970
-153.539104199999997 281.052764772040518 447.615983400000005
-18.703147500000000 282.052764772040518 447.628663500000016
-153.076230139304130 283.350893843586505 447.614012494957819
-157.775412850877160 293.118167685372441 447.575849896320278
-100.527260495365439 257.398958390473467 447.690293606370346
-138.319107763515433 259.460623549364982 447.685928960684294
-145.170949538558403 270.825720406224718 447.651507227218190
-16.191078800000000 283.052764772040518 447.641343599999971
-155.507337500000006 284.052764772040518 447.654023699999982
-45.829977718061514 252.336004215447360 447.772491144323453
-95.004340386714958 256.761705648348652 447.833682708835340
-30.935800209702862 263.961187733779070 447.803502531228446
-104.013420871478161 269.273455010068687 447.823881611397496
-54.571530621158054 245.628069341190439 447.917137964690085
-135.882801358841732 258.129435158920273 447.908156619837143
-142.176907138081219 267.911257136584709 447.868261122838192
-17.501955273496520 270.393579641419251 447.922497827451252
-106.125320895517362 278.252165333009316 447.865862756351362
-101.864039253700241 265.263517619868708 447.947267052638949
-103.042511907426046 266.392132758561388 448.131079009871883
-106.857202476725462 269.329283350415039 448.121850989600546
-147.868516039230258 278.879800286447221 448.074368322106011
-150.871570749756188 282.058185364383348 448.125912446217228
-114.740670094994698 268.424025168087383 448.233933334743938
-22.692000531228018 268.925505051862160 448.159900990148628
-37.038267147154279 271.861630969556245 448.170546087493960
-152.743199896517069 287.217803247117899 448.211588330225936
-161.764470967711759 289.397758541068242 448.214224214507453
-149.897857966197336 289.905102314280612 448.171389997738800
-56.446619525245154 242.812863706805160 448.256986379509840
-36.974279774149181 257.251950674492377 448.254617437087461
-142.335162148981397 260.317059252598938 448.271527050708983
-128.042213238436602 264.455561770882241 448.267575311394353
-39.236700534734538 265.605543460778222 448.277385115352047
-140.583691181614768 265.820393165515156 448.287739749710624
-146.701699531796123 266.669703434314329 448.273010304532590
-111.864184904951159 273.415891812101222 448.299566998314219
-150.617629917058252 281.735337908754559 448.280015529996376
-55.805572207751688 239.595410197385718 448.404170654197571
-119.388516282472878 255.034148535485656 448.368921118115054
-130.998922681655813 255.455504769166964 448.357655174236754
-19.043680778554759 266.571891820975679 448.393960805127335
-150.603063579818695 278.430050324476611 448.345575135449167
-150.209850982487097 287.055244713138109 448.412824009437770
-54.331273019840076 243.051325885481447 448.444904352558353
-41.433597863608981 251.803445295868187 448.535423042085995
-35.718741649213555 259.367884633130416 448.452268916395496
-101.612396560705406 262.652471809923213 448.510169279335287
-143.995366538470364 268.536587433676800 448.521267048848699
-113.822802556644447 275.416599396536640 448.524400279903659
-49.864474016267984 253.333586656188231 448.599586104880132
-42.045460736471625 253.581663701156231 448.571919015698995
-92.267448987210699 257.193054201996574 448.576795532167694
-127.064061901496075 261.569108045089138 448.588012645876120
-150.320255916543488 274.793530148488685 448.568558256797360
-155.289900344369670 285.674513526728902 448.575752946266789
-135.397117058577919 255.147806321507005 448.718037048690860
-134.161001224092558 256.363658604258944 448.678931202822923
-106.606575616150948 266.718698984722323 448.687340715192647
-33.023916285942150 266.658159670360419 448.705287302778970
-20.021328122206370 268.904860593070225 448.712825376957767
-36.839675668813278 269.367537743908997 448.664146559706069
-159.562194993720141 288.106447584545322 448.725570760414200
-46.580302451129697 250.347630201839593 448.770843714907073
-131.045449279662591 250.651903511600381 448.784517683683021
-138.357581052060482 264.515106982189991 448.804620349144500
-151.435643508029841 268.661287711371756 448.802125571664646
-19.810675068435529 270.422414214791502 448.828730589914244
-151.192034889927328 283.892477125584719 448.827631578491037
-101.272402422800113 260.544966653254505 448.849679038794363
-147.020995903116784 264.128114831302923 448.855239786609502
-100.899643949368482 264.927220395496079 448.854343655843650
-149.382530517839768 271.929895402014381 448.891167420232250
-149.201610256371168 275.810885972189112 448.897308544072985
-101.435703657707677 251.577814393506742 448.994735926416467
-25.205955796161462 267.438318440454168 448.949980728420655
-105.295932465637904 275.950223390904284 448.996584134593718
-54.300359332410835 248.163907560796702 449.123974724138691
-123.644939996278694 251.415725162378180 449.044511096070323
-99.278669327753278 263.029179186165720 449.045886771765765
-27.798269633139014 266.705047364146139 449.068558404152157
-30.390583470116596 265.971776287837884 449.187136079883715
-158.366903871270779 275.309204569065400 449.184039510443313
-145.792369016105397 276.968715523180776 449.210317234428487
-104.980648465422448 280.189472738700829 449.228407224733417
-157.359919019728409 286.815136628022401 449.236917306320947
-140.064547013503670 258.948381401236929 449.298288696232873
-98.881734096436276 259.328394640262445 449.260694190196489
-136.131470922506196 263.209820798864939 449.321500948578375
-144.452855911028792 263.467116912243455 449.240830001903248
-105.713293362749255 282.704781572752950 449.336007925222930
-43.490070901615169 254.776717407304204 449.356863340583629
-98.605479007086601 255.335806664077495 449.350522986971271
-100.475837062695064 260.439326653891612 449.351057405641996
-147.158803803841693 270.626006741369565 449.407494614313407
-150.925348651935849 281.240005103604517 449.428376365452152
-50.145480938394542 251.202147871942429 449.456176782346176
-140.132219647124202 262.271751778553153 449.480878110086223
-100.282406772763309 273.175757320358116 449.530715393356672
-107.667928891478482 273.526780225636799 449.525988707369152
-108.384162164483740 281.949290160799251 449.458178863855380
-49.046781938330156 248.879780233532074 449.564943864846725
-121.766914809310833 264.245389932878311 449.584656597959622
-105.063747275570122 272.253788259109115 449.555926769819280
-53.779121900000007 236.052764772040518 449.668750699999975
-51.617425440202368 248.152638904988407 449.682530295639936
-129.995384106110407 253.258991253243948 449.675295602357437
-101.101794268076361 257.416132474435585 449.641387175601267
-100.367439878325357 259.195793415827325 449.706066993875595
-102.160172656087170 283.056995632979010 449.737990691649316
-155.810750187943199 284.749657373414379 449.651947794142870
-152.171195216314345 284.961199378128299 449.737861388142449
-14.573160039745559 285.823458151549858 449.696367842210520
-50.441437800000003 249.052764772040518 449.796960599999977
-133.139837756603583 253.784475451525282 449.744871169961925
-45.012887486622738 258.697925880469484 449.807767209806173
-143.273120419416557 263.153555136810041 449.807835155712610
-104.581644511824820 264.898243799819170 449.805431723171637
-15.316470061758096 272.898227864240084 449.799857193402431
-103.519680636332922 274.128604393402043 449.791734358698989
-145.522227976813923 274.311032818415811 449.810279003451512
-152.039291518245335 292.622051165327321 449.785867561129066
-55.029699517228437 244.775839732275927 449.867460874031224
-127.547811833597919 251.916249253935462 449.902566497604141
-47.541921600000002 255.052764772040518 449.856134399999974
-127.067282100000000 256.052764772040518 449.865996699999982
-96.997051629278062 257.337026536249937 449.902765091513402
-129.207401200000021 259.052764772040518 449.895583600000009
-42.123292200000002 261.052764772040518 449.915308199999970
-131.330613499999998 262.052764772040518 449.925170499999979
-39.526689500000003 262.052764772040518 449.925170499999979
-133.507394141044472 262.874233633022868 449.934301349581403
-30.820040618643546 269.087955587020929 449.887032207530467
-106.104551692575228 271.453854741192686 449.932759907358104
-43.804039711802176 249.592588032385265 450.006408628023962
-100.506699300000008 264.052764772040518 449.944895099999997
-36.894864300000002 264.052764772040518 449.944895099999997
-138.520230200000015 265.052764772040518 449.954757400000005
-135.978574600000002 265.052764772040518 449.954757400000005
-34.312350600000002 265.052764772040518 449.954757400000005
-31.735472500000004 266.052764772040518 449.964619700000014
-29.196634700000001 266.052764772040518 449.964619700000014
-145.821150000000017 267.052764772040518 449.974481999999966
-143.285130000000009 267.052764772040518 449.974481999999966
-148.192328700000019 268.052764772040518 449.984344299999975
-26.598623100000001 268.052764772040518 449.984344299999975
-150.390212700000006 270.052764772040518 450.004068899999993
-144.299226678865125 270.106183691680030 450.019020607659570
-23.985113600000002 271.052764772040518 450.013931200000002
-102.024084600000009 273.052764772040518 450.033655800000020
-56.161125437120063 240.166863388758088 450.106392450223495
-102.139536680976747 263.066047202765503 450.068388226002412
-146.406510613149806 264.027656089157972 450.138154358734710
-148.504375833994004 269.460865934946696 450.065032319082775
-152.065394800000007 275.052764772040518 450.053380399999980
